# .PCD v0.7 - Point Cloud Data file format
VERSION 0.7
FIELDS x y z rgb
SIZE 4 4 4 4
TYPE F F F F
COUNT 1 1 1 1
WIDTH 1017
HEIGHT 1
VIEWPOINT 0 0 0 1 0 0 0
POINTS 1017
DATA ascii
0.63494188 -1.9343663 0.77470106 8.0162988e-39
0.64422888 -1.9343663 0.77470106 8.0159387e-39
0.65537328 -1.9343663 0.77470106 7.9237403e-39
0.66466027 -1.9343663 0.77470106 7.9237403e-39
0.67394727 -1.9343663 0.77470106 8.0159345e-39
0.68509167 -1.9343662 0.77470112 8.0159345e-39
0.69623595 -1.9343661 0.77470118 8.0159345e-39
0.70552301 -1.9343661 0.77470118 8.0159345e-39
0.71481007 -1.9343661 0.77470118 8.0155758e-39
0.72595435 -1.9343661 0.77470118 8.015573e-39
0.73524141 -1.9343661 0.77470118 8.1074084e-39
0.74452835 -1.9343661 0.77470118 8.1996041e-39
0.75567269 -1.9343659 0.7747013 8.291441e-39
0.76495969 -1.9343659 0.7747013 8.1992411e-39
0.77424669 -1.9343659 0.7747013 8.1992397e-39
0.78539109 -1.9343657 0.7747013 8.1992411e-39
0.79467803 -1.9343657 0.77470136 8.1992411e-39
0.80396503 -1.9343657 0.77470136 8.1074042e-39
0.81510943 -1.9343656 0.77470136 8.1070455e-39
0.82625371 -1.9343656 0.77470136 8.1070455e-39
0.83554077 -1.9343656 0.77470136 8.1074056e-39
0.84482765 -1.9343654 0.77470136 8.1992425e-39
0.85597211 -1.9343654 0.77470136 8.1074056e-39
0.86525905 -1.9343654 0.77470142 8.1074042e-39
0.87454605 -1.9343654 0.77470142 8.0155744e-39
0.88569045 -1.9343654 0.77470142 8.0159387e-39
0.89497745 -1.9343654 0.77470142 8.0159373e-39
0.90426445 -1.9343653 0.77470142 7.9237403e-39
0.91169393 -1.9343652 0.77470154 7.9233787e-39
-0.91238552 -1.9253573 0.77469891 7.8311845e-39
-0.90498447 -1.9253573 0.77469897 7.7389875e-39
-0.89388275 -1.9253572 0.77469903 7.7393476e-39
-0.8864817 -1.9253572 0.77469903 1.0969097e-38
-0.62004286 -1.9253565 0.77469933 9.4917904e-39
-0.61449206 -1.9253565 0.77469933 8.0148499e-39
-0.60524064 -1.9253565 0.77469939 8.01521e-39
-0.5941391 -1.9253565 0.77469939 8.1074084e-39
-0.58488774 -1.9253565 0.77469933 8.0159373e-39
-0.57563639 -1.9253564 0.77469939 8.0159373e-39
-0.56453472 -1.9253564 0.77469945 7.9237403e-39
-0.55528343 -1.9253564 0.77469945 8.0155758e-39
-0.54603201 -1.9253564 0.77469945 8.0155758e-39
-0.53493047 -1.9253564 0.77469945 8.0155744e-39
-0.52382892 -1.9253564 0.77469945 8.0155744e-39
-0.51457751 -1.9253564 0.77469945 8.0159331e-39
-0.50532621 -1.9253564 0.77469945 8.0159345e-39
-0.49422458 -1.9253564 0.77469945 8.0155744e-39
-0.48497319 -1.9253561 0.77469957 8.015573e-39
-0.47572184 -1.9253563 0.77469951 8.1077686e-39
-0.46462026 -1.9253563 0.77469951 8.2917997e-39
-0.45536894 -1.9253561 0.77469957 8.1996013e-39
-0.44611761 -1.9253563 0.77469951 8.1992383e-39
-0.43501601 -1.9253563 0.77469951 8.2910752e-39
-0.4239144 -1.9253563 0.77469951 8.1992397e-39
-0.41466305 -1.9253561 0.77469957 8.1074042e-39
-0.40541169 -1.9253559 0.77469951 8.1070455e-39
-0.39431009 -1.9253559 0.77469951 8.1074056e-39
-0.38505873 -1.9253559 0.77469957 8.1992425e-39
-0.37580737 -1.9253559 0.77469951 8.1996013e-39
-0.3647058 -1.9253559 0.77469951 8.1074056e-39
-0.35545447 -1.9253559 0.77469957 8.0152086e-39
-0.34620312 -1.9253559 0.77469951 8.0152128e-39
-0.33510152 -1.9253559 0.77469951 7.9237431e-39
-0.32399991 -1.9253559 0.77469951 7.9237431e-39
-0.31474859 -1.9253558 0.77469963 7.9237403e-39
-0.3054972 -1.9253556 0.77469969 7.9233787e-39
-0.2943956 -1.9253556 0.77469969 7.9230172e-39
-0.28514427 -1.9253557 0.77469969 7.9230158e-39
-0.27589294 -1.9253556 0.77469969 7.8311789e-39
-0.26479134 -1.9253556 0.77469969 7.8308202e-39
-0.25554001 -1.9253557 0.77469969 7.8308202e-39
-0.24628867 -1.9253556 0.77469969 7.9230186e-39
-0.23518705 -1.9253556 0.77469975 7.9233801e-39
-0.22408545 -1.9253554 0.77469987 7.9233801e-39
-0.21483412 -1.9253554 0.77469981 7.9237389e-39
-0.20558278 -1.9253554 0.77469987 7.9237403e-39
-0.19448118 -1.9253554 0.77469987 7.9237417e-39
-0.18522984 -1.9253554 0.77469981 8.0162974e-39
-0.1759785 -1.9253554 0.77469987 8.1077728e-39
-0.16487692 -1.9253554 0.77469987 8.015573e-39
-0.1537753 -1.9253553 0.77469993 8.1074084e-39
-0.14452398 -1.9253552 0.77469993 8.1077686e-39
-0.13527264 -1.9253553 0.77469993 8.015573e-39
-0.12417104 -1.9253553 0.77469993 7.9233773e-39
-0.11491971 -1.9253552 0.77469993 8.0152128e-39
-0.10566837 -1.9253553 0.77469993 8.0152114e-39
-0.09641704 -1.9253552 0.77469993 8.0155701e-39
0.12376461 -1.9253546 0.77470022 7.2816149e-39
0.13486621 -1.9253546 0.77470022 7.9230144e-39
0.1459678 -1.9253546 0.77470022 7.9226557e-39
0.15521912 -1.9253546 0.77470022 7.9230158e-39
0.16447045 -1.9253546 0.77470022 7.9230158e-39
0.17557204 -1.9253545 0.77470022 7.8308202e-39
0.18482336 -1.9253544 0.77470028 7.8308188e-39
0.19407469 -1.9253544 0.77470034 7.923013e-39
0.20517628 -1.9253544 0.77470034 7.9230158e-39
0.21627788 -1.9253544 0.77470034 7.9233787e-39
0.22552919 -1.9253544 0.77470028 7.9237403e-39
0.23478051 -1.9253544 0.77470034 7.9237417e-39
0.24588211 -1.9253544 0.77470034 7.831546e-39
0.25513345 -1.9253544 0.77470028 7.7389875e-39
0.26438475 -1.9253541 0.77470034 7.8311845e-39
0.27548632 -1.9253541 0.7747004 7.8319048e-39
0.28473768 -1.9253541 0.7747004 7.8319076e-39
0.29398897 -1.9253541 0.7747004 7.8319062e-39
0.30509058 -1.9253541 0.7747004 7.739349e-39
0.31619218 -1.9253541 0.7747004 7.7389875e-39
0.32544348 -1.9253539 0.77470052 7.8311831e-39
0.33469477 -1.9253539 0.77470046 7.8315432e-39
0.34579635 -1.9253539 0.77470046 7.7389889e-39
0.3550477 -1.9253539 0.77470052 7.7389903e-39
0.36429903 -1.9253539 0.77470046 7.8319076e-39
0.37540063 -1.9253539 0.77470058 7.9244647e-39
0.3846519 -1.9253538 0.77470064 8.0159387e-39
0.39390323 -1.9253536 0.77470064 7.9237417e-39
0.40500483 -1.9253536 0.77470064 7.8315446e-39
0.41610637 -1.9253536 0.77470064 7.831546e-39
0.42350745 -1.9253538 0.77470064 7.8326362e-39
0.56412739 -1.9253531 0.77470088 8.6605808e-39
0.57522899 -1.9253531 0.77470088 8.01521e-39
0.58448029 -1.9253531 0.77470088 8.01521e-39
0.59373164 -1.9253531 0.77470088 7.9230144e-39
0.60483325 -1.9253531 0.77470088 7.9230144e-39
0.61593479 -1.9253529 0.77470094 8.1070469e-39
0.62518609 -1.9253529 0.774701 8.1074084e-39
0.63443738 -1.9253529 0.77470094 8.0159373e-39
0.64553899 -1.9253529 0.77470094 8.0159373e-39
0.65479028 -1.9253528 0.77470106 7.9237389e-39
0.66404152 -1.9253526 0.77470112 7.9237389e-39
0.67514306 -1.9253526 0.77470112 8.0155758e-39
0.68624467 -1.9253526 0.77470112 8.0155744e-39
0.69549596 -1.9253526 0.77470112 8.0155744e-39
0.70474738 -1.9253526 0.77470112 8.0159331e-39
0.71584892 -1.9253525 0.77470112 8.0159345e-39
0.72510016 -1.9253523 0.77470118 8.0155744e-39
0.73435146 -1.9253525 0.77470118 8.015573e-39
0.74545306 -1.9253525 0.77470118 8.1077686e-39
0.75470436 -1.9253523 0.77470118 8.2917997e-39
0.76395565 -1.9253525 0.77470118 8.1992425e-39
0.77505714 -1.9253521 0.7747013 8.1992383e-39
0.7861588 -1.9253521 0.7747013 8.2910752e-39
0.79541004 -1.9253521 0.7747013 8.1992397e-39
0.80466133 -1.9253521 0.7747013 8.1070455e-39
0.815763 -1.9253521 0.7747013 8.1070455e-39
0.82501423 -1.9253521 0.77470136 8.1074056e-39
0.83426547 -1.925352 0.77470136 8.107407e-39
0.84536713 -1.925352 0.77470136 8.1996013e-39
0.85461843 -1.925352 0.77470136 8.1074056e-39
0.86386967 -1.925352 0.77470136 8.01521e-39
0.87497121 -1.925352 0.77470136 8.0152142e-39
0.88607281 -1.9253517 0.77470142 7.9241018e-39
0.89532411 -1.9253517 0.77470148 7.9237431e-39
0.90457535 -1.9253517 0.77470142 7.9233815e-39
0.91197646 -1.9253517 0.77470148 7.9233801e-39
-0.91249585 -1.9164127 0.77469891 7.7393504e-39
-0.90512317 -1.9164127 0.77469891 7.7389875e-39
-0.89590716 -1.9164127 0.77469891 9.3081236e-39
-0.61205614 -1.9164121 0.77469921 9.5836259e-39
-0.60468334 -1.916412 0.77469927 8.1070455e-39
-0.59546739 -1.9164119 0.77469939 8.1077658e-39
-0.58440828 -1.9164119 0.77469939 8.0155744e-39
-0.57519233 -1.9164119 0.77469933 8.0155758e-39
-0.56597638 -1.9164119 0.77469939 8.0155758e-39
-0.55491728 -1.9164119 0.77469939 8.0155744e-39
-0.54385811 -1.9164119 0.77469939 8.015573e-39
-0.53464222 -1.9164119 0.77469933 8.015573e-39
-0.52542633 -1.9164119 0.77469939 8.1074084e-39
-0.5143671 -1.9164118 0.77469939 8.015573e-39
-0.50515115 -1.9164116 0.77469945 8.0155744e-39
-0.49593529 -1.9164118 0.77469945 8.0155715e-39
-0.48487616 -1.9164118 0.77469945 8.0152114e-39
-0.47381702 -1.9164118 0.77469945 8.1077672e-39
-0.46460113 -1.9164116 0.77469945 8.2917983e-39
-0.45538521 -1.9164118 0.77469945 8.1992411e-39
-0.44432607 -1.9164118 0.77469945 8.1992369e-39
-0.43511009 -1.9164115 0.77469951 8.1992383e-39
-0.42589414 -1.9164114 0.77469951 8.1992397e-39
-0.41483507 -1.9164114 0.77469951 8.1074042e-39
-0.40377593 -1.9164114 0.77469951 8.1074042e-39
-0.39456001 -1.9164114 0.77469957 8.1074056e-39
-0.38534412 -1.9164114 0.77469951 8.1074056e-39
-0.37428498 -1.9164114 0.77469951 8.1996013e-39
-0.365069 -1.9164114 0.77469957 8.1074056e-39
-0.35585308 -1.9164114 0.77469951 8.01521e-39
-0.34479395 -1.9164113 0.77469969 8.0152142e-39
-0.33373484 -1.916411 0.77469969 7.9241018e-39
-0.32451889 -1.9164112 0.77469969 7.9237431e-39
-0.31530297 -1.916411 0.77469969 7.8319062e-39
-0.30424386 -1.916411 0.77469969 7.9233801e-39
-0.29502794 -1.9164112 0.77469969 8.0152128e-39
-0.28581202 -1.916411 0.77469969 7.9230172e-39
-0.27475289 -1.916411 0.77469969 7.8311803e-39
-0.26369375 -1.916411 0.77469969 7.8311803e-39
-0.25447783 -1.916411 0.77469969 7.8311803e-39
-0.24526189 -1.9164109 0.77469975 7.9230186e-39
-0.23420279 -1.9164109 0.77469975 7.9233787e-39
-0.22498685 -1.9164109 0.77469975 7.9233801e-39
-0.21577092 -1.9164109 0.77469975 7.9237403e-39
-0.20471181 -1.9164109 0.77469975 7.9237417e-39
-0.19549587 -1.9164109 0.77469975 7.9241018e-39
-0.18627995 -1.9164109 0.77469975 8.0159373e-39
-0.17522085 -1.9164109 0.77469975 8.10777e-39
-0.16416171 -1.9164108 0.77469987 8.1077686e-39
-0.15494578 -1.9164108 0.77469987 8.1074098e-39
-0.14572985 -1.9164108 0.77469987 8.1074084e-39
-0.13467073 -1.9164108 0.77469987 8.0152142e-39
-0.12545481 -1.9164108 0.77469987 7.9233787e-39
-0.11623889 -1.9164108 0.77469987 7.9233773e-39
-0.10517979 -1.9164108 0.77469987 8.0152128e-39
-0.095963851 -1.9164108 0.77469987 8.0152114e-39
0.11968878 -1.9164101 0.77470016 6.1821253e-39
0.12521833 -1.9164101 0.77470016 7.9230172e-39
0.13443425 -1.9164101 0.77470016 7.9226557e-39
0.14549337 -1.9164101 0.77470016 7.8308202e-39
0.15470928 -1.91641 0.77470016 7.9230158e-39
0.16392522 -1.91641 0.77470016 7.9230158e-39
0.17498429 -1.91641 0.77470022 7.9226557e-39
0.18604343 -1.91641 0.77470022 7.9226543e-39
0.19525933 -1.91641 0.77470022 7.9230158e-39
0.20447524 -1.91641 0.77470022 7.9230172e-39
0.21553437 -1.91641 0.77470022 7.9233773e-39
0.22475028 -1.91641 0.77470022 7.9233787e-39
0.23396619 -1.91641 0.77470022 7.9233801e-39
0.24502529 -1.9164099 0.77470022 7.8315446e-39
0.25608438 -1.9164099 0.77470034 7.7389875e-39
0.2653003 -1.9164097 0.77470028 7.8311831e-39
0.27451622 -1.9164099 0.77470034 7.831546e-39
0.28557533 -1.9164099 0.77470034 7.8319062e-39
0.29479125 -1.9164097 0.77470028 7.8322677e-39
0.30400711 -1.9164095 0.7747004 7.7397105e-39
0.31506622 -1.9164095 0.7747004 7.7389861e-39
0.32612532 -1.9164095 0.7747004 7.739349e-39
0.33534124 -1.9164095 0.7747004 7.8315446e-39
0.34455717 -1.9164095 0.7747004 7.7389889e-39
0.35561624 -1.9164091 0.77470046 7.7389889e-39
0.36483219 -1.9164093 0.77470052 7.8315488e-39
0.37404811 -1.9164091 0.77470046 7.9241046e-39
0.38510719 -1.9164091 0.77470046 7.9241032e-39
0.39616624 -1.9164091 0.77470046 7.9237417e-39
0.40538219 -1.9164093 0.77470058 7.9233801e-39
0.41459811 -1.9164091 0.77470064 7.8311845e-39
0.42197084 -1.9164091 0.77470064 8.016666e-39
0.5583663 -1.9164085 0.77470082 1.0136077e-38
0.5657391 -1.9164085 0.77470082 8.1070455e-39
0.57495499 -1.9164085 0.77470082 8.01521e-39
0.58417076 -1.9164082 0.77470094 8.0148499e-39
0.59522986 -1.9164082 0.77470094 8.0144897e-39
0.60628897 -1.9164082 0.77470094 8.0148485e-39
0.61550486 -1.9164083 0.77470094 8.1074042e-39
0.62472081 -1.9164082 0.77470094 8.1077658e-39
0.63577992 -1.9164082 0.77470094 8.0155744e-39
0.64499569 -1.9164082 0.77470106 8.0155758e-39
0.65421158 -1.9164082 0.77470106 8.0159345e-39
0.66527075 -1.9164082 0.77470106 8.0155744e-39
0.67448664 -1.9164082 0.77470106 8.015573e-39
0.68370265 -1.9164082 0.77470106 8.015573e-39
0.69476169 -1.9164081 0.77470112 8.1074084e-39
0.70582062 -1.9164079 0.77470112 8.015573e-39
0.71503663 -1.9164079 0.77470112 8.0155744e-39
0.72425252 -1.9164079 0.77470112 8.0152128e-39
0.73531157 -1.9164079 0.77470112 8.0152128e-39
0.74452752 -1.9164079 0.77470112 8.1074084e-39
0.75374341 -1.9164077 0.77470118 8.1996041e-39
0.76480246 -1.9164077 0.7747013 8.1992397e-39
0.77586156 -1.9164077 0.7747013 8.1992369e-39
0.78507745 -1.9164077 0.77470124 8.1992383e-39
0.7942934 -1.9164077 0.7747013 8.1992397e-39
0.80535239 -1.9164076 0.7747013 8.1074042e-39
0.81456828 -1.9164075 0.77470136 8.1074056e-39
0.82378417 -1.9164075 0.77470136 8.1074056e-39
0.83484322 -1.9164075 0.77470136 8.1074056e-39
0.84590238 -1.9164075 0.77470136 8.1996013e-39
0.85511822 -1.9164073 0.77470136 8.1074056e-39
0.86433411 -1.9164072 0.77470136 8.01521e-39
0.87539315 -1.9164072 0.77470136 8.0152142e-39
0.8846091 -1.9164073 0.77470136 8.0159373e-39
0.89382505 -1.9164072 0.77470136 7.9237431e-39
0.9048841 -1.9164072 0.77470136 7.8319062e-39
0.91225672 -1.9164071 0.77470148 7.9237403e-39
-0.91260546 -1.9075365 0.77469891 9.4003207e-39
-0.9052608 -1.9075365 0.77469891 7.7393476e-39
-0.89791614 -1.9075365 0.77469891 1.0968737e-38
-0.60413027 -1.9075357 0.77469927 8.1992397e-39
-0.59494948 -1.9075357 0.77469927 8.1996013e-39
-0.5857687 -1.9075357 0.77469927 8.1074084e-39
-0.57475168 -1.9075357 0.77469927 8.1074084e-39
-0.56373477 -1.9075357 0.77469927 8.1074084e-39
-0.55455399 -1.9075357 0.77469927 8.107407e-39
-0.54537314 -1.9075356 0.77469939 8.0155715e-39
-0.53435612 -1.9075354 0.77469939 8.1074084e-39
-0.52517533 -1.9075354 0.77469933 8.1999628e-39
-0.51599455 -1.9075354 0.77469939 8.1077672e-39
-0.50497758 -1.9075354 0.77469939 8.0155715e-39
-0.49396065 -1.9075354 0.77469939 7.9230158e-39
-0.48477986 -1.9075354 0.77469933 7.9230144e-39
-0.47559905 -1.9075354 0.77469939 8.107407e-39
-0.46458209 -1.9075352 0.77469939 8.1996041e-39
-0.45540127 -1.9075352 0.77469945 8.1992411e-39
-0.44622049 -1.9075352 0.77469945 8.1988782e-39
-0.43520355 -1.9075352 0.77469945 8.1992383e-39
-0.42418659 -1.9075352 0.77469945 8.1992397e-39
-0.41500577 -1.9075352 0.77469945 8.1074042e-39
-0.40582499 -1.9075352 0.77469945 8.1074042e-39
-0.39480805 -1.9075352 0.77469945 8.1070455e-39
-0.38379109 -1.9075352 0.77469945 8.1070455e-39
-0.37461025 -1.907535 0.77469957 8.1074056e-39
-0.36542949 -1.907535 0.77469951 8.1070469e-39
-0.35441247 -1.907535 0.77469951 8.0152114e-39
-0.34523171 -1.907535 0.77469957 8.015573e-39
-0.3360509 -1.907535 0.77469951 8.0159359e-39
-0.32503396 -1.907535 0.77469951 7.9241018e-39
-0.314017 -1.907535 0.77469951 7.8319076e-39
-0.30483621 -1.907535 0.77469957 7.9237417e-39
-0.2956554 -1.907535 0.77469969 8.0155744e-39
-0.28463843 -1.907535 0.77469969 7.9233773e-39
-0.27545765 -1.9075348 0.77469969 7.8311817e-39
-0.26627687 -1.907535 0.77469969 7.9230172e-39
-0.2552599 -1.907535 0.77469969 7.9233773e-39
-0.24424297 -1.907535 0.77469969 7.8315432e-39
-0.23506217 -1.9075348 0.77469969 7.8315432e-39
-0.22588135 -1.907535 0.77469969 7.9237417e-39
-0.21486442 -1.9075347 0.77469969 7.9241046e-39
-0.20384745 -1.9075346 0.77469987 7.9241032e-39
-0.19466665 -1.9075346 0.77469981 7.9241004e-39
-0.18548585 -1.9075346 0.77469987 8.0159345e-39
-0.17446892 -1.9075346 0.77469987 8.10777e-39
-0.16528812 -1.9075346 0.77469981 8.1081301e-39
-0.15610732 -1.9075346 0.77469987 8.1077714e-39
-0.14509039 -1.9075346 0.77469987 7.9233787e-39
-0.13407342 -1.9075346 0.77469987 7.9233787e-39
-0.12489263 -1.9075344 0.77469987 7.9237389e-39
-0.11571184 -1.9075342 0.77469987 7.9237389e-39
-0.1046949 -1.9075342 0.77469987 8.0159331e-39
-0.095514104 -1.9075344 0.77469987 8.0155715e-39
0.11931635 -1.9075339 0.77470011 7.9230158e-39
0.12482482 -1.9075338 0.77470016 7.9230172e-39
0.13400559 -1.9075336 0.77470016 7.9230144e-39
0.14502253 -1.9075336 0.77470016 7.9226557e-39
0.15603948 -1.9075336 0.77470016 7.9230158e-39
0.16522026 -1.9075336 0.77470016 7.9233759e-39
0.17440104 -1.9075336 0.77470016 7.9230158e-39
0.18541799 -1.9075336 0.77470016 7.9230144e-39
0.19459879 -1.9075336 0.77470016 7.9230172e-39
0.20377956 -1.9075336 0.77470016 7.9230172e-39
0.21479648 -1.9075333 0.77470034 7.8311817e-39
0.22581343 -1.9075333 0.77470034 7.8311831e-39
0.2349942 -1.9075334 0.77470028 7.8311845e-39
0.244175 -1.9075333 0.77470034 7.7393476e-39
0.25519192 -1.9075333 0.77470034 7.7389875e-39
0.26620889 -1.9075333 0.77470034 7.739349e-39
0.27538964 -1.9075332 0.77470034 7.8315446e-39
0.28457043 -1.9075332 0.77470034 7.831546e-39
0.29558736 -1.9075332 0.77470034 7.8319062e-39
0.30476815 -1.9075332 0.77470034 7.7397091e-39
0.31394893 -1.9075332 0.77470034 7.7393476e-39
0.32496586 -1.9075332 0.7747004 7.8311845e-39
0.3359828 -1.907533 0.77470046 7.8315446e-39
0.34516355 -1.907533 0.77470046 7.8311831e-39
0.35434437 -1.907533 0.77470046 7.830823e-39
0.3653613 -1.907533 0.77470046 7.831546e-39
0.37454209 -1.907533 0.77470046 7.9237431e-39
0.38372278 -1.9075328 0.77470046 7.9237417e-39
0.39473975 -1.9075328 0.77470046 7.9237389e-39
0.40575671 -1.9075328 0.77470046 7.8311831e-39
0.41493747 -1.9075328 0.77470052 7.9230172e-39
0.42044592 -1.9075328 0.77470052 8.29362e-39
0.5581575 -1.9075322 0.77470082 8.2917969e-39
0.56550217 -1.9075322 0.77470088 8.1996027e-39
0.57468289 -1.9075322 0.77470088 8.0152114e-39
0.5856998 -1.9075322 0.77470088 7.923013e-39
0.59488058 -1.9075322 0.77470088 8.0148471e-39
0.60406137 -1.9075322 0.77470088 8.106684e-39
0.61507827 -1.9075321 0.77470094 8.1992397e-39
0.62609518 -1.9075321 0.77470094 8.1996013e-39
0.63527596 -1.907532 0.774701 8.1074084e-39
0.64445668 -1.9075321 0.77470094 8.1074084e-39
0.65547365 -1.9075321 0.77470094 8.1074084e-39
0.66465443 -1.9075319 0.774701 8.107407e-39
0.67383522 -1.9075317 0.77470106 8.0155715e-39
0.68485206 -1.9075317 0.77470106 8.1074084e-39
0.69586897 -1.9075317 0.77470106 8.1999628e-39
0.70504975 -1.9075317 0.77470106 8.1077672e-39
0.71423054 -1.9075317 0.77470106 8.0155715e-39
0.72524738 -1.9075314 0.77470118 7.9230158e-39
0.73626441 -1.9075314 0.77470118 7.9230144e-39
0.74544513 -1.9075315 0.77470118 8.107407e-39
0.75462586 -1.9075314 0.77470118 8.1996041e-39
0.76564282 -1.9075314 0.77470118 8.1992397e-39
0.77482355 -1.9075315 0.77470124 8.1988796e-39
0.78400427 -1.9075314 0.7747013 8.1992383e-39
0.79502124 -1.9075314 0.7747013 8.1992397e-39
0.80603814 -1.9075314 0.7747013 8.1074042e-39
0.81521893 -1.9075314 0.7747013 8.1074042e-39
0.82439971 -1.9075314 0.7747013 8.1070455e-39
0.83541656 -1.9075311 0.77470136 8.1070455e-39
0.84459734 -1.907531 0.77470136 8.1074056e-39
0.85377806 -1.9075311 0.77470136 8.1070469e-39
0.86479503 -1.9075311 0.77470136 8.0152114e-39
0.87581187 -1.9075311 0.77470136 8.0155744e-39
0.88499272 -1.907531 0.77470136 8.0159359e-39
0.89417338 -1.9075308 0.77470142 7.9241018e-39
0.90519029 -1.9075308 0.77470142 7.8319076e-39
0.91253489 -1.9075308 0.77470148 7.9237431e-39
-0.91271418 -1.8987277 0.77469879 9.4003207e-39
-0.90539736 -1.8987275 0.77469879 8.8460637e-39
-0.60358143 -1.8987267 0.77469921 9.6758216e-39
-0.59443545 -1.8987268 0.77469921 8.1074056e-39
-0.58528954 -1.8987267 0.77469921 8.1077686e-39
-0.57614368 -1.8987268 0.77469921 8.0159331e-39
-0.56516844 -1.8987265 0.77469927 8.0159331e-39
-0.55419332 -1.8987265 0.77469939 8.0155715e-39
-0.5450474 -1.8987265 0.77469933 8.01521e-39
-0.53590149 -1.8987265 0.77469939 8.1074056e-39
-0.52492636 -1.8987265 0.77469939 8.1996013e-39
-0.51395124 -1.8987265 0.77469939 8.1074056e-39
-0.50480533 -1.8987265 0.77469933 8.1074056e-39
-0.49565938 -1.8987265 0.77469939 8.0152114e-39
-0.48468423 -1.8987265 0.77469939 8.0152114e-39
-0.47370911 -1.8987263 0.77469945 8.1077686e-39
-0.46456322 -1.8987263 0.77469945 8.1999642e-39
-0.45541728 -1.8987263 0.77469945 8.1996027e-39
-0.44444218 -1.8987263 0.77469945 8.1992411e-39
-0.43529627 -1.8987263 0.77469945 8.1995999e-39
-0.42615032 -1.8987263 0.77469945 8.1992411e-39
-0.4151752 -1.8987263 0.77469945 8.1074056e-39
-0.40420008 -1.8987263 0.77469945 8.1074056e-39
-0.39505413 -1.8987261 0.77469957 8.1074056e-39
-0.38590822 -1.8987261 0.77469951 8.1074056e-39
-0.37493309 -1.8987261 0.77469951 8.1070455e-39
-0.36395797 -1.8987261 0.77469951 8.01521e-39
-0.35481206 -1.8987261 0.77469957 8.0148513e-39
-0.34566614 -1.8987261 0.77469951 8.0152128e-39
-0.33469105 -1.8987261 0.77469951 8.1074084e-39
-0.32371593 -1.8987261 0.77469951 7.9237403e-39
-0.31456998 -1.8987259 0.77469963 7.8319076e-39
-0.30542403 -1.8987259 0.77469963 7.9237417e-39
-0.29444894 -1.8987259 0.77469963 8.0155744e-39
-0.28530303 -1.8987259 0.77469963 7.9233773e-39
-0.27615708 -1.8987259 0.77469963 7.8311817e-39
-0.26518199 -1.8987259 0.77469963 7.9233787e-39
-0.25420687 -1.8987259 0.77469963 8.0155758e-39
-0.24506095 -1.8987259 0.77469963 7.9237403e-39
-0.23591502 -1.8987259 0.77469963 7.9237403e-39
-0.22493988 -1.8987256 0.77469969 7.9237417e-39
-0.21396478 -1.8987256 0.77469969 7.9241018e-39
-0.20481884 -1.8987256 0.77469969 7.9241018e-39
-0.19567293 -1.8987256 0.77469969 7.9241004e-39
-0.18469782 -1.8987256 0.77469969 8.015573e-39
-0.17372274 -1.8987256 0.77469969 8.1074098e-39
-0.1645768 -1.8987256 0.77469969 8.1081301e-39
-0.1554309 -1.8987256 0.77469969 8.10777e-39
-0.14445575 -1.8987255 0.77469987 8.0152142e-39
-0.13530985 -1.8987255 0.77469981 7.9233787e-39
-0.12616391 -1.8987255 0.77469987 7.9237403e-39
-0.11518881 -1.8987255 0.77469987 7.9237403e-39
-0.10421371 -1.8987255 0.77469987 8.10777e-39
-0.095067784 -1.8987255 0.77469981 8.015573e-39
0.11894674 -1.898725 0.77469999 7.9233773e-39
0.12626345 -1.8987249 0.77470011 8.0152128e-39
0.13540938 -1.8987248 0.77470011 7.9233759e-39
0.14455529 -1.8987249 0.77470011 7.9233759e-39
0.15553039 -1.8987249 0.77470011 7.9230158e-39
0.16467631 -1.8987248 0.77470011 7.9230158e-39
0.17382222 -1.8987249 0.77470011 7.9230158e-39
0.18479733 -1.8987249 0.77470011 7.9230158e-39
0.19577242 -1.8987249 0.77470011 8.0152114e-39
0.20491832 -1.8987248 0.77470016 7.9230172e-39
0.21406424 -1.8987247 0.77470022 7.8311817e-39
0.22503935 -1.8987247 0.77470022 7.8311817e-39
0.23601444 -1.8987247 0.77470022 7.8311831e-39
0.24516037 -1.8987247 0.77470022 7.8311831e-39
0.25430629 -1.8987247 0.77470022 7.830823e-39
0.26528135 -1.8987244 0.77470022 7.8311859e-39
0.27625644 -1.8987242 0.77470034 7.9237417e-39
0.28540236 -1.8987243 0.77470028 7.9237417e-39
0.29454827 -1.8987242 0.77470034 7.8319062e-39
0.30552337 -1.8987242 0.77470034 7.8311859e-39
0.31466928 -1.8987243 0.77470028 7.7393476e-39
0.32381517 -1.8987241 0.7747004 7.8311845e-39
0.33479026 -1.8987241 0.7747004 7.8319048e-39
0.34576535 -1.8987241 0.7747004 7.8315446e-39
0.3549113 -1.8987241 0.7747004 7.8315446e-39
0.36405718 -1.8987241 0.7747004 7.831546e-39
0.37503228 -1.898724 0.77470046 7.8319048e-39
0.38600734 -1.898724 0.77470046 7.9233801e-39
0.39515325 -1.8987238 0.77470052 7.9237389e-39
0.40429917 -1.898724 0.77470046 7.9233787e-39
0.41344509 -1.8987238 0.77470052 7.9233787e-39
0.55612111 -1.8987232 0.77470088 8.2921584e-39
0.56526709 -1.8987232 0.77470088 8.1999628e-39
0.57624215 -1.8987232 0.77470088 8.0148499e-39
0.58538806 -1.8987232 0.77470088 7.9226528e-39
0.59453392 -1.8987231 0.77470088 8.0148485e-39
0.60550898 -1.898723 0.77470094 8.1070441e-39
0.6146549 -1.898723 0.77470094 8.1992383e-39
0.62380081 -1.898723 0.77470094 8.1074056e-39
0.63477594 -1.898723 0.77470094 8.0159331e-39
0.645751 -1.898723 0.77470094 8.0159331e-39
0.65489686 -1.8987229 0.774701 8.0159331e-39
0.66404271 -1.898723 0.77470094 8.0155715e-39
0.67501783 -1.898723 0.77470094 8.01521e-39
0.6859929 -1.898723 0.77470094 8.1074056e-39
0.69513881 -1.8987229 0.774701 8.1996027e-39
0.70428467 -1.8987228 0.77470106 8.1074056e-39
0.71525973 -1.8987226 0.77470112 8.1074056e-39
0.72623485 -1.8987226 0.77470112 8.0152114e-39
0.73538077 -1.8987226 0.77470112 8.01521e-39
0.74452662 -1.8987226 0.77470112 8.1077686e-39
0.75550175 -1.8987226 0.77470112 8.1999642e-39
0.7646476 -1.8987226 0.77470112 8.1996027e-39
0.77379346 -1.8987223 0.77470118 8.1992411e-39
0.78476852 -1.8987223 0.77470118 8.1995999e-39
0.79574364 -1.8987223 0.77470118 8.1992411e-39
0.80488956 -1.8987224 0.77470118 8.1074056e-39
0.81403542 -1.8987223 0.77470118 8.1074056e-39
0.82501048 -1.8987223 0.7747013 8.1074056e-39
0.83598548 -1.8987222 0.7747013 8.1070469e-39
0.8451314 -1.8987222 0.7747013 8.1070455e-39
0.85427731 -1.8987222 0.7747013 8.01521e-39
0.86525244 -1.8987222 0.7747013 8.0148513e-39
0.87622744 -1.8987222 0.77470136 8.0152128e-39
0.88537329 -1.8987221 0.77470142 8.1074098e-39
0.89451927 -1.8987221 0.77470142 7.9237403e-39
0.90549427 -1.8987221 0.77470142 7.8319076e-39
0.91281098 -1.8987221 0.77470142 9.4925177e-39
-0.91287553 -1.8856472 0.77469873 9.3999619e-39
-0.90735519 -1.8899853 0.77469879 9.3077649e-39
-0.59516543 -1.8878155 0.77469921 8.1992397e-39
-0.58548576 -1.8856463 0.77469921 8.1074084e-39
-0.5745728 -1.8856463 0.77469921 8.0155744e-39
-0.56453121 -1.8847786 0.77469921 8.0159345e-39
-0.55551296 -1.8865139 0.77469921 8.1077686e-39
-0.54547143 -1.885646 0.77469927 8.107407e-39
-0.53455848 -1.885646 0.77469921 8.1074084e-39
-0.52453208 -1.8847784 0.77469921 8.1077686e-39
-0.51548356 -1.8865137 0.77469933 8.1074084e-39
-0.50545722 -1.885646 0.77469927 8.1074084e-39
-0.49454418 -1.885646 0.77469927 8.1074084e-39
-0.48453292 -1.8847784 0.77469933 8.0155715e-39
-0.47545415 -1.8865135 0.77469933 8.1074084e-39
-0.46544287 -1.8856459 0.77469939 8.1996027e-39
-0.45544261 -1.8847783 0.77469933 8.1074056e-39
-0.44543919 -1.8856459 0.77469927 8.01521e-39
-0.43452621 -1.8856459 0.77469927 8.01521e-39
-0.42450768 -1.8865135 0.77469933 8.1074056e-39
-0.41544342 -1.8847783 0.77469933 8.1992425e-39
-0.40542495 -1.8856459 0.77469927 8.1074084e-39
-0.39451194 -1.8856457 0.77469939 8.015573e-39
-0.38447827 -1.8865134 0.77469945 8.015573e-39
-0.37544426 -1.884778 0.77469945 8.0152128e-39
-0.36541066 -1.8856455 0.77469945 8.0152128e-39
-0.35449767 -1.8856457 0.77469951 8.015573e-39
-0.34444889 -1.8865134 0.77469951 8.1074084e-39
-0.33544514 -1.884778 0.77469945 8.1074084e-39
-0.32539639 -1.8856457 0.77469945 8.0155744e-39
-0.3144834 -1.8856455 0.77469951 7.9237403e-39
-0.30441952 -1.8865131 0.77469957 8.015573e-39
-0.29544598 -1.884778 0.77469957 8.107407e-39
-0.28538212 -1.8856455 0.77469963 7.9233759e-39
-0.27446914 -1.8856455 0.77469963 7.8311831e-39
-0.26439017 -1.8865131 0.77469957 7.9233815e-39
-0.25544685 -1.884778 0.77469957 7.9241018e-39
-0.24536787 -1.8856455 0.77469963 7.9237417e-39
-0.23445489 -1.8856455 0.77469963 7.8319048e-39
-0.22436079 -1.8865131 0.77469957 7.8319062e-39
-0.21544769 -1.8847777 0.77469963 7.8322663e-39
-0.20535362 -1.8856453 0.77469969 7.9241032e-39
-0.19444062 -1.8856453 0.77469969 8.0159373e-39
-0.18433145 -1.8865128 0.77469969 8.015573e-39
-0.17544857 -1.8847777 0.77469969 8.1077686e-39
-0.16533937 -1.8856453 0.77469969 8.199967e-39
-0.15442641 -1.8856453 0.77469969 8.1081301e-39
-0.14430209 -1.8865128 0.77469969 8.0155744e-39
-0.13544944 -1.8847774 0.77469969 7.9233773e-39
-0.12532513 -1.8856449 0.77469975 8.0155715e-39
-0.11441215 -1.885645 0.77469975 8.015573e-39
-0.10427272 -1.8865125 0.77469981 8.1074098e-39
-0.095450304 -1.8847773 0.77469975 7.9233773e-39
0.11839789 -1.8856444 0.77470005 7.831546e-39
0.12567319 -1.8856443 0.77470011 7.8319048e-39
0.13476732 -1.8856443 0.77470005 7.8315432e-39
0.14386147 -1.8856443 0.77470011 7.8311831e-39
0.15477444 -1.8856443 0.77470011 7.9230158e-39
0.1656874 -1.8856443 0.77470011 7.9230158e-39
0.17581311 -1.8847767 0.77470005 7.9233773e-39
0.18466297 -1.8865118 0.77470011 8.0152128e-39
0.19478865 -1.8856441 0.77470016 8.0155701e-39
0.2057016 -1.8856441 0.77470016 7.923013e-39
0.21515979 -1.8899822 0.77470022 8.0148499e-39
0.22244884 -1.8899822 0.77470022 8.9353432e-39
0.23520468 -1.8899822 0.77470022 9.1200988e-39
0.24652645 -1.8865116 0.77470016 8.1077658e-39
0.25581127 -1.8847764 0.77470022 7.8315432e-39
0.26472157 -1.8865116 0.77470028 7.9233801e-39
0.27481702 -1.8856438 0.77470022 7.9237403e-39
0.28573 -1.885644 0.77470034 7.9237403e-39
0.29581034 -1.8847764 0.77470028 7.831546e-39
0.30475092 -1.8865116 0.77470028 7.8311845e-39
0.31483123 -1.8856438 0.77470034 7.7389889e-39
0.32574415 -1.8856438 0.7747004 7.8315446e-39
0.33580941 -1.8847761 0.77470034 7.9237417e-39
0.34478021 -1.8865114 0.7747004 7.9237417e-39
0.3548454 -1.8856438 0.7747004 7.9237417e-39
0.36489964 -1.8847761 0.77470034 7.9241032e-39
0.37484899 -1.8856436 0.77470046 7.9241032e-39
0.38480943 -1.8865111 0.77470046 7.8319048e-39
0.39485955 -1.8856435 0.77470046 7.8315446e-39
0.4048987 -1.8847758 0.77470046 8.0155744e-39
0.41207913 -1.8870896 0.77470046 8.015573e-39
0.5549162 -1.8856429 0.7747007 8.1996041e-39
0.56489486 -1.8847754 0.77470076 8.10777e-39
0.57491988 -1.8856429 0.7747007 8.0152128e-39
0.58495581 -1.8865106 0.77470076 8.0148499e-39
0.59493035 -1.8856429 0.77470082 8.106684e-39
0.60489386 -1.8847752 0.77470088 8.1070413e-39
0.61493397 -1.8856426 0.77470088 8.1988782e-39
0.62498504 -1.8865103 0.77470088 8.1992397e-39
0.63494444 -1.8856426 0.77470088 8.1077672e-39
0.64489293 -1.8847752 0.77470088 8.0155744e-39
0.65494806 -1.8856424 0.77470094 8.0159331e-39
0.66501421 -1.8865099 0.774701 8.1077686e-39
0.67495853 -1.8856424 0.77470106 8.107407e-39
0.68489194 -1.8847748 0.774701 8.1077672e-39
0.69496226 -1.8856424 0.77470094 8.1077686e-39
0.70504349 -1.8865101 0.77470094 8.1074084e-39
0.71497267 -1.8856422 0.77470112 8.1074084e-39
0.72489089 -1.8847746 0.77470106 8.1074084e-39
0.73497629 -1.8856422 0.77470112 8.0155715e-39
0.74588925 -1.8856422 0.77470112 8.1996027e-39
0.75498343 -1.8856422 0.77470112 8.1996041e-39
0.76407748 -1.8856421 0.77470112 8.1074056e-39
0.77499038 -1.8856421 0.77470112 8.01521e-39
0.78590339 -1.8856421 0.77470118 8.01521e-39
0.79499745 -1.8856421 0.77470118 8.1074056e-39
0.80409163 -1.8856421 0.77470118 8.107407e-39
0.81500453 -1.8856421 0.77470118 8.1074084e-39
0.82591748 -1.8856421 0.77470118 8.015573e-39
0.83501154 -1.8856418 0.77470124 8.015573e-39
0.84410566 -1.8856419 0.77470118 8.0152128e-39
0.85501862 -1.8856419 0.77470118 8.0152128e-39
0.86593157 -1.8856419 0.7747013 8.015573e-39
0.87502569 -1.8856417 0.7747013 8.1074084e-39
0.88411981 -1.8856417 0.7747013 8.1074084e-39
0.89503258 -1.8856416 0.77470136 7.9237389e-39
0.9059456 -1.8856417 0.77470136 7.9237403e-39
0.91322094 -1.8856416 0.77470136 9.5843504e-39
-0.59110796 -1.8726969 0.77469921 8.01521e-39
-0.58387369 -1.8726969 0.77469921 8.0152114e-39
-0.57483077 -1.8726969 0.77469921 8.0155715e-39
-0.56578785 -1.8726969 0.77469921 8.1077686e-39
-0.55493641 -1.8726969 0.77469921 8.1077686e-39
-0.54408497 -1.8726969 0.77469921 8.1992425e-39
-0.53504205 -1.8726969 0.77469921 8.1996027e-39
-0.52599913 -1.8726969 0.77469921 8.10777e-39
-0.51514763 -1.8726968 0.77469921 8.1074098e-39
-0.50429612 -1.8726965 0.77469927 8.1074056e-39
-0.49525326 -1.8726966 0.77469927 8.107407e-39
-0.48621038 -1.8726965 0.77469927 8.107407e-39
-0.47535893 -1.8726965 0.77469927 8.1074098e-39
-0.46450746 -1.8726965 0.77469927 8.1077686e-39
-0.45365599 -1.8726965 0.77469927 8.107407e-39
-0.4446131 -1.8726966 0.77469927 8.01521e-39
-0.43557015 -1.8726965 0.77469939 8.0152114e-39
-0.42471871 -1.8726964 0.77469939 8.0152114e-39
-0.41386724 -1.8726964 0.77469939 8.0155715e-39
-0.40482432 -1.8726964 0.77469939 8.1074084e-39
-0.39578143 -1.8726964 0.77469939 8.1074098e-39
-0.38492998 -1.8726964 0.77469939 8.1074098e-39
-0.37407851 -1.8726964 0.77469939 8.015573e-39
-0.36503562 -1.8726964 0.77469939 8.1074084e-39
-0.3559927 -1.8726964 0.77469939 8.10777e-39
-0.34514126 -1.8726963 0.77469951 8.0159359e-39
-0.33428979 -1.8726963 0.77469951 7.9237417e-39
-0.32524687 -1.8726962 0.77469951 7.9237403e-39
-0.31620398 -1.8726963 0.77469951 7.9233801e-39
-0.30535251 -1.8726963 0.77469951 8.0155744e-39
-0.29450107 -1.8726963 0.77469951 8.1077686e-39
-0.28364959 -1.8726963 0.77469951 7.9233787e-39
-0.2746067 -1.8726962 0.77469951 7.8311845e-39
-0.26556382 -1.872696 0.77469951 7.9233801e-39
-0.25471231 -1.8726959 0.77469951 8.0159345e-39
-0.24386086 -1.8726959 0.77469951 7.9237389e-39
-0.23481797 -1.8726959 0.77469957 7.9237389e-39
-0.22577508 -1.8726959 0.77469951 7.9241004e-39
-0.21492362 -1.8726959 0.77469951 7.9241004e-39
-0.20407216 -1.8726959 0.77469951 8.0159331e-39
-0.19502927 -1.8726959 0.77469957 8.1077686e-39
-0.18598638 -1.8726959 0.77469951 8.1077672e-39
-0.1751349 -1.8726958 0.77469963 8.1077686e-39
-0.16428344 -1.8726958 0.77469963 8.1999642e-39
-0.15524057 -1.8726958 0.77469963 8.1996041e-39
-0.14619766 -1.8726958 0.77469963 8.01521e-39
-0.1353462 -1.8726958 0.77469963 8.01521e-39
-0.12449474 -1.8726958 0.77469963 8.0152114e-39
-0.11364327 -1.8726958 0.77469963 8.1074056e-39
-0.10460039 -1.8726958 0.77469963 8.1996027e-39
-0.095557511 -1.8726958 0.77469969 8.1070469e-39
0.11785455 -1.8726951 0.77469999 7.8319048e-39
0.12508886 -1.8726951 0.77469999 7.9237389e-39
0.13594031 -1.8726951 0.77469999 7.9237389e-39
0.1449832 -1.8726951 0.77469999 8.015573e-39
0.15402608 -1.8726951 0.77469999 7.9230158e-39
0.16487752 -1.872695 0.77469999 7.9226543e-39
0.17572898 -1.872695 0.77469999 7.9233759e-39
0.18477187 -1.872695 0.77470005 8.0155715e-39
0.19381474 -1.872695 0.77469999 8.0152128e-39
0.20104904 -1.872695 0.77470005 8.0152114e-39
0.2553063 -1.8726946 0.77470016 7.9237389e-39
0.26615775 -1.8726946 0.77470016 7.9237403e-39
0.27520064 -1.8726946 0.77470022 7.9237417e-39
0.28424349 -1.8726945 0.77470034 7.831546e-39
0.29509494 -1.8726945 0.77470034 7.8315446e-39
0.30594638 -1.8726945 0.77470034 7.8311831e-39
0.31498927 -1.8726945 0.77470028 7.8311817e-39
0.32403216 -1.8726945 0.77470034 7.8315446e-39
0.3348836 -1.8726944 0.77470034 7.9241032e-39
0.34573498 -1.8726944 0.7747004 7.831546e-39
0.3547779 -1.8726943 0.7747004 7.8311873e-39
0.36382079 -1.8726944 0.7747004 7.9241046e-39
0.37467226 -1.8726944 0.7747004 8.0163016e-39
0.38552365 -1.8726941 0.77470046 7.9241032e-39
0.39637509 -1.872694 0.77470046 7.9241018e-39
0.40541798 -1.872694 0.77470052 7.9237417e-39
0.41084367 -1.872694 0.77470052 8.0155772e-39
0.54829532 -1.8726937 0.7747007 8.1996027e-39
0.55552959 -1.8726937 0.7747007 8.1077714e-39
0.56638104 -1.8726934 0.77470082 8.0159359e-39
0.57542384 -1.8726933 0.77470076 7.9233773e-39
0.58446676 -1.8726934 0.77470082 7.9230144e-39
0.5953182 -1.8726934 0.77470082 8.0148485e-39
0.60616964 -1.8726934 0.77470082 8.0148485e-39
0.6152125 -1.8726933 0.77470076 8.0152072e-39
0.62425536 -1.8726931 0.77470088 8.0152086e-39
0.63510674 -1.8726931 0.77470088 8.0152114e-39
0.64595824 -1.8726931 0.77470088 8.0155715e-39
0.65500104 -1.8726931 0.77470088 8.1077686e-39
0.66404396 -1.8726931 0.77470088 8.1077686e-39
0.67489529 -1.8726931 0.77470094 8.1992425e-39
0.68574685 -1.8726929 0.77470094 8.1996041e-39
0.69478965 -1.8726929 0.774701 8.1081301e-39
0.70383245 -1.8726929 0.77470094 8.1074098e-39
0.71468395 -1.8726929 0.77470094 8.1074056e-39
0.72553539 -1.8726929 0.77470094 8.107407e-39
0.73457825 -1.8726928 0.774701 8.107407e-39
0.74362105 -1.8726927 0.77470106 8.1074084e-39
0.75447249 -1.8726927 0.77470106 8.1077686e-39
0.76532394 -1.8726927 0.77470106 8.107407e-39
0.77617544 -1.8726927 0.77470106 8.0152114e-39
0.78521824 -1.8726927 0.77470106 8.0152114e-39
0.79426104 -1.8726926 0.77470112 8.0152114e-39
0.80511254 -1.8726925 0.77470118 8.0155715e-39
0.81596392 -1.8726925 0.77470118 8.1074084e-39
0.82500678 -1.8726925 0.77470118 8.1074098e-39
0.83404964 -1.8726925 0.77470118 8.1074098e-39
0.84490108 -1.8726925 0.77470118 8.015573e-39
0.85575247 -1.8726922 0.7747013 8.1074098e-39
0.86479533 -1.8726922 0.7747013 8.10777e-39
0.87383819 -1.8726922 0.7747013 8.0159359e-39
0.88468963 -1.8726922 0.7747013 7.9237417e-39
0.89554101 -1.8726922 0.7747013 7.9233801e-39
0.90458387 -1.8726921 0.77470136 7.9233801e-39
0.91181815 -1.8726921 0.77470136 9.5839917e-39
-0.58521062 -1.8641502 0.77469915 7.8315432e-39
-0.57439977 -1.8641502 0.77469915 7.9230172e-39
-0.56539071 -1.8641502 0.77469915 8.1074098e-39
-0.55638158 -1.86415 0.77469921 8.10777e-39
-0.54557067 -1.86415 0.77469921 8.1992411e-39
-0.53475982 -1.86415 0.77469921 8.1992439e-39
-0.52394897 -1.86415 0.77469921 8.1999656e-39
-0.5149399 -1.86415 0.77469921 8.1077686e-39
-0.50593084 -1.86415 0.77469921 8.107407e-39
-0.49511993 -1.8641499 0.77469921 8.1074084e-39
-0.48430908 -1.8641499 0.77469921 8.1077686e-39
-0.47530004 -1.8641499 0.77469921 8.1077686e-39
-0.46629095 -1.8641497 0.77469927 8.1996041e-39
-0.4554801 -1.8641497 0.77469927 8.1074084e-39
-0.44466922 -1.8641497 0.77469927 8.0152114e-39
-0.43385831 -1.8641497 0.77469927 7.9230158e-39
-0.42484924 -1.8641497 0.77469933 7.9230158e-39
-0.41584018 -1.8641497 0.77469939 8.0152114e-39
-0.4050293 -1.8641497 0.77469939 8.1074084e-39
-0.39421844 -1.8641497 0.77469939 8.1077686e-39
-0.38520935 -1.8641496 0.77469939 8.0155744e-39
-0.37620032 -1.8641496 0.77469939 8.0152128e-39
-0.36538944 -1.8641496 0.77469939 8.0152128e-39
-0.35457858 -1.8641496 0.77469939 8.10777e-39
-0.34376773 -1.8641496 0.77469939 7.9237417e-39
-0.33475864 -1.8641495 0.77469945 7.8319062e-39
-0.32574958 -1.8641495 0.77469945 7.831546e-39
-0.31493869 -1.8641495 0.77469945 7.8315432e-39
-0.30412781 -1.8641495 0.77469945 8.0155715e-39
-0.29511878 -1.8641493 0.77469945 8.1992425e-39
-0.28610972 -1.8641495 0.77469945 8.0152128e-39
-0.27529883 -1.8641495 0.77469945 7.8315432e-39
-0.26448798 -1.8641495 0.77469945 7.9237403e-39
-0.2536771 -1.8641495 0.77469945 8.0159359e-39
-0.24466804 -1.8641493 0.77469951 8.0155744e-39
-0.23565899 -1.8641495 0.77469951 8.0155744e-39
-0.22484811 -1.8641495 0.77469951 8.0155772e-39
-0.21403724 -1.8641492 0.77469951 8.0155772e-39
-0.20502818 -1.8641492 0.77469957 8.1074098e-39
-0.19601913 -1.8641492 0.77469951 8.1077686e-39
-0.18520826 -1.8641492 0.77469951 8.1077686e-39
-0.17439739 -1.8641492 0.77469951 8.1996041e-39
-0.16538833 -1.8641491 0.77469957 8.2917969e-39
-0.15637927 -1.8641491 0.77469951 8.1996013e-39
-0.14556842 -1.8641491 0.77469951 8.0148499e-39
-0.13475753 -1.8641491 0.77469951 8.0148499e-39
-0.12394667 -1.8641491 0.77469963 8.0148499e-39
-0.11493761 -1.864149 0.77469963 8.1070469e-39
-0.10592856 -1.864149 0.77469963 8.1996027e-39
-0.095117696 -1.864149 0.77469963 8.1070469e-39
0.11749594 -1.8641485 0.77469993 7.831546e-39
0.12470319 -1.8641485 0.77469993 7.9237403e-39
0.13551404 -1.8641485 0.77469993 7.9237403e-39
0.14632489 -1.8641485 0.77469999 8.0152142e-39
0.15533394 -1.8641484 0.77469999 7.9230158e-39
0.164343 -1.8641485 0.77469999 7.9230144e-39
0.17515385 -1.8641483 0.77469999 8.0152128e-39
0.1859647 -1.8641483 0.77469999 8.1074112e-39
0.19497374 -1.8641481 0.77470005 8.1074098e-39
0.25443342 -1.8641478 0.77470016 7.9233787e-39
0.26524431 -1.8641478 0.77470016 7.9237403e-39
0.27605516 -1.8641478 0.77470016 7.9237417e-39
0.28506419 -1.8641478 0.77470022 7.9237403e-39
0.29407325 -1.8641478 0.77470022 7.9237403e-39
0.30488411 -1.8641477 0.77470022 7.8315432e-39
0.31569496 -1.8641477 0.77470034 7.8315432e-39
0.32470399 -1.8641477 0.77470028 7.8319034e-39
0.33371305 -1.8641477 0.77470034 7.9237431e-39
0.34452388 -1.8641475 0.77470034 7.739349e-39
0.35533473 -1.8641475 0.77470034 7.739349e-39
0.36614561 -1.8641475 0.7747004 7.9244647e-39
0.37515461 -1.8641474 0.7747004 8.0166632e-39
0.38416365 -1.8641475 0.7747004 7.9241032e-39
0.3949745 -1.8641475 0.7747004 7.9237417e-39
0.40578532 -1.8641475 0.77470046 7.9237403e-39
0.54632634 -1.8641467 0.7747007 8.7527793e-39
0.5553354 -1.8641467 0.7747007 8.10777e-39
0.56434435 -1.8641467 0.7747007 8.0155758e-39
0.57515526 -1.8641466 0.7747007 7.8311803e-39
0.58596605 -1.8641466 0.7747007 7.8308188e-39
0.59497511 -1.8641466 0.77470076 8.0148499e-39
0.60398412 -1.8641466 0.77470082 8.1070441e-39
0.61479497 -1.8641466 0.77470082 8.1074042e-39
0.62560576 -1.8641466 0.77470082 8.01521e-39
0.63461483 -1.8641465 0.77470082 7.9230158e-39
0.64362389 -1.8641466 0.77470082 7.9230172e-39
0.65443474 -1.8641464 0.77470088 8.0159331e-39
0.66524553 -1.8641464 0.77470088 8.1996041e-39
0.67605639 -1.8641464 0.77470088 8.1992411e-39
0.68506539 -1.8641462 0.77470094 8.1996027e-39
0.69407445 -1.8641462 0.77470094 8.1999642e-39
0.7048853 -1.8641462 0.77470094 8.1077686e-39
0.7156961 -1.8641461 0.77470094 8.107407e-39
0.7247051 -1.8641461 0.77470094 8.1077672e-39
0.7337141 -1.8641461 0.77470094 8.1077686e-39
0.74452496 -1.8641459 0.77470094 8.1077686e-39
0.75533581 -1.8641459 0.77470094 8.1077686e-39
0.76614666 -1.8641459 0.77470106 8.107407e-39
0.77515566 -1.8641459 0.77470106 8.0152114e-39
0.78416467 -1.8641459 0.77470106 7.9230158e-39
0.79497552 -1.8641459 0.77470106 7.9230158e-39
0.80578637 -1.8641458 0.77470112 8.0152128e-39
0.81479537 -1.8641458 0.77470112 8.1074084e-39
0.82380438 -1.8641458 0.77470112 8.1077686e-39
0.83461523 -1.8641458 0.77470118 8.0155744e-39
0.84542608 -1.8641458 0.77470118 8.0152128e-39
0.85623688 -1.8641458 0.7747013 8.015573e-39
0.86524588 -1.8641456 0.77470124 8.10777e-39
0.87425494 -1.8641456 0.7747013 7.9237417e-39
0.88506573 -1.8641456 0.7747013 7.8319048e-39
0.89587659 -1.8641456 0.7747013 7.8315446e-39
0.90488559 -1.8641455 0.7747013 7.8315432e-39
0.9120928 -1.8641455 0.77470136 9.5839903e-39
-0.58474243 -1.8556671 0.77469909 7.7400735e-39
-0.57576698 -1.8556671 0.77469903 7.8308188e-39
-0.56499642 -1.8556671 0.77469903 7.9237403e-39
-0.55422586 -1.8556671 0.77469903 8.0155758e-39
-0.5452503 -1.8556671 0.77469909 8.107407e-39
-0.53627485 -1.8556671 0.77469915 8.1074098e-39
-0.52550429 -1.855667 0.77469915 8.1081315e-39
-0.51473361 -1.855667 0.77469915 8.10777e-39
-0.50396305 -1.855667 0.77469915 8.1996027e-39
-0.49498758 -1.8556669 0.77469921 8.1077686e-39
-0.4860121 -1.8556668 0.77469921 8.1077686e-39
-0.47524154 -1.8556668 0.77469921 8.1077686e-39
-0.46447095 -1.8556668 0.77469921 8.1077686e-39
-0.45370039 -1.8556668 0.77469921 8.1074084e-39
-0.44472489 -1.8556668 0.77469927 8.0152114e-39
-0.43574941 -1.8556668 0.77469927 7.9230158e-39
-0.42497882 -1.8556668 0.77469927 7.8311789e-39
-0.41420826 -1.8556668 0.77469927 8.01521e-39
-0.40523276 -1.8556666 0.77469933 8.1074056e-39
-0.39625728 -1.8556666 0.77469939 8.1077672e-39
-0.38548669 -1.8556666 0.77469939 8.015573e-39
-0.37471613 -1.8556666 0.77469939 7.9230172e-39
-0.36394557 -1.8556666 0.77469939 7.9233773e-39
-0.35497007 -1.8556665 0.77469939 8.1077686e-39
-0.34599456 -1.8556665 0.77469939 8.0155758e-39
-0.335224 -1.8556665 0.77469939 7.9233801e-39
-0.32445344 -1.8556665 0.77469939 7.9233773e-39
-0.31368282 -1.8556665 0.77469945 7.9233759e-39
-0.30470738 -1.8556664 0.77469945 8.0152128e-39
-0.29573187 -1.8556665 0.77469945 8.107407e-39
-0.28496131 -1.8556665 0.77469945 7.9233773e-39
-0.27419072 -1.8556663 0.77469945 7.9233773e-39
-0.26521525 -1.8556663 0.77469945 8.0155744e-39
-0.25623977 -1.8556663 0.77469945 8.0159345e-39
-0.2454692 -1.8556663 0.77469945 8.0155744e-39
-0.23469861 -1.8556663 0.77469951 8.0152156e-39
-0.22392803 -1.8556663 0.77469951 8.0155772e-39
-0.21495256 -1.8556663 0.77469951 8.0159359e-39
-0.20597708 -1.8556663 0.77469951 8.1077686e-39
-0.19520651 -1.8556662 0.77469951 8.1077686e-39
-0.18443592 -1.8556662 0.77469951 8.1996027e-39
-0.17366536 -1.8556662 0.77469951 8.1996041e-39
-0.16468988 -1.8556662 0.77469957 8.1996041e-39
-0.15571441 -1.8556662 0.77469963 8.107407e-39
-0.14494383 -1.8556662 0.77469951 7.9230144e-39
-0.13417326 -1.855666 0.77469963 7.923013e-39
-0.12519778 -1.855666 0.77469963 7.9230144e-39
-0.11622231 -1.855666 0.77469963 8.01521e-39
-0.10545174 -1.855666 0.77469969 8.1992411e-39
-0.094681166 -1.8556658 0.77469969 8.1070455e-39
0.11714 -1.8556653 0.77469987 7.8315432e-39
0.12432037 -1.8556652 0.77469993 7.9233801e-39
0.13509095 -1.8556652 0.77469993 7.9237389e-39
0.14586151 -1.8556652 0.77469993 7.9237375e-39
0.15483698 -1.8556652 0.77469993 8.0152128e-39
0.16381244 -1.8556652 0.77469993 8.0152114e-39
0.174583 -1.8556652 0.77469993 8.0155744e-39
0.18535356 -1.8556651 0.77469999 8.0159345e-39
0.19432902 -1.8556651 0.77469999 8.0155744e-39
0.24997692 -1.8556648 0.77470011 7.8315446e-39
0.25536218 -1.8556647 0.77470016 7.9237403e-39
0.26433766 -1.8556647 0.77470016 7.9237403e-39
0.27510822 -1.8556647 0.77470016 7.9237403e-39
0.28587878 -1.8556647 0.77470016 7.9237417e-39
0.29485425 -1.8556647 0.77470016 7.9241032e-39
0.3038297 -1.8556646 0.77470022 7.8319062e-39
0.31460026 -1.8556646 0.77470022 7.8315432e-39
0.32537082 -1.8556646 0.77470034 7.8315474e-39
0.33614135 -1.8556646 0.77470034 7.8319076e-39
0.34511682 -1.8556645 0.77470028 7.7393504e-39
0.35409227 -1.8556644 0.77470034 7.7389889e-39
0.36486283 -1.8556644 0.77470034 7.9237445e-39
0.37563339 -1.8556644 0.7747004 8.0163016e-39
0.38640395 -1.8556644 0.7747004 7.9237431e-39
0.39537942 -1.8556644 0.7747004 7.9237403e-39
0.4043549 -1.8556644 0.7747004 7.9237417e-39
0.54437202 -1.8556638 0.77470064 8.5687495e-39
0.55514258 -1.8556637 0.7747007 8.0159373e-39
0.56591314 -1.8556637 0.7747007 7.9237403e-39
0.57488859 -1.8556637 0.7747007 7.9226571e-39
0.58386403 -1.8556637 0.7747007 7.8308188e-39
0.59463459 -1.8556637 0.77470082 8.0148485e-39
0.60540515 -1.8556637 0.77470082 8.1070455e-39
0.61617565 -1.8556637 0.77470082 8.1074084e-39
0.6251511 -1.8556635 0.77470082 8.0155715e-39
0.6341266 -1.8556637 0.77470082 7.9226528e-39
0.64489704 -1.8556634 0.77470088 7.8311789e-39
0.6556676 -1.8556634 0.77470088 8.0155758e-39
0.66464305 -1.8556633 0.77470088 8.10777e-39
0.6736185 -1.8556633 0.77470088 8.107407e-39
0.68438905 -1.8556633 0.77470088 8.1074098e-39
0.69515961 -1.8556633 0.77470088 8.1081315e-39
0.70593017 -1.8556632 0.77470094 8.10777e-39
0.71490562 -1.8556632 0.77470094 8.1996027e-39
0.72388101 -1.8556629 0.77470094 8.1077672e-39
0.73465157 -1.8556629 0.77470094 8.1077686e-39
0.74542212 -1.8556629 0.77470094 8.1077686e-39
0.75619268 -1.8556629 0.77470094 8.1077686e-39
0.76516807 -1.8556629 0.774701 8.1077672e-39
0.77414352 -1.8556629 0.77470094 8.0152128e-39
0.78491408 -1.8556628 0.77470106 7.9230158e-39
0.79568458 -1.8556628 0.77470106 7.9230144e-39
0.80466008 -1.8556628 0.77470106 8.01521e-39
0.81363553 -1.8556628 0.77470112 8.107407e-39
0.82440609 -1.8556627 0.77470112 8.1077686e-39
0.83517653 -1.8556627 0.77470112 8.015573e-39
0.84594709 -1.8556627 0.77470118 7.9230172e-39
0.85492253 -1.8556627 0.77470118 7.9233773e-39
0.86389798 -1.8556627 0.77470118 8.0155744e-39
0.87466854 -1.8556627 0.7747013 8.0155758e-39
0.8854391 -1.8556627 0.7747013 7.9233801e-39
0.89620954 -1.8556625 0.7747013 7.9233773e-39
0.90518498 -1.8556625 0.77470124 7.9233759e-39
0.91236532 -1.8556625 0.77470124 9.4921534e-39
-0.58070093 -1.8472471 0.77469903 7.9222913e-39
-0.57533562 -1.8472471 0.77469903 7.9226543e-39
-0.56639349 -1.8472471 0.77469903 7.9237389e-39
-0.55566293 -1.8472471 0.77469903 8.0155758e-39
-0.54493231 -1.847247 0.77469903 8.015573e-39
-0.53420174 -1.847247 0.77469903 8.1074112e-39
-0.52525961 -1.847247 0.77469909 8.1081329e-39
-0.51631743 -1.847247 0.77469903 8.1081315e-39
-0.5055868 -1.8472468 0.77469915 8.1996055e-39
-0.49485624 -1.8472468 0.77469915 8.10777e-39
-0.4841257 -1.8472468 0.77469915 8.1077686e-39
-0.47518355 -1.8472469 0.77469915 8.1077686e-39
-0.46624136 -1.8472468 0.77469921 8.1077686e-39
-0.45551077 -1.8472468 0.77469921 8.107407e-39
-0.4447802 -1.8472468 0.77469921 8.0148499e-39
-0.43404961 -1.8472468 0.77469921 7.9230158e-39
-0.42510748 -1.8472468 0.77469921 7.9230158e-39
-0.41616526 -1.8472466 0.77469921 8.01521e-39
-0.4054347 -1.8472466 0.77469921 8.1074056e-39
-0.3947041 -1.8472466 0.77469921 8.1077672e-39
-0.38397351 -1.8472466 0.77469921 8.0155715e-39
-0.37503138 -1.8472465 0.77469927 7.8311789e-39
-0.36608922 -1.8472465 0.77469927 7.8311803e-39
-0.35535869 -1.8472465 0.77469927 8.015573e-39
-0.3446281 -1.8472465 0.77469927 8.0152142e-39
-0.33389747 -1.8472465 0.77469939 7.9230186e-39
-0.32495534 -1.8472464 0.77469933 7.9230172e-39
-0.31601319 -1.8472465 0.77469939 7.9230158e-39
